1.330945390462875366e+01 -2.437689834833145142e+01 5.496872296789661050e-01
1.365283769369125366e+01 -2.455475479364395142e+01 5.472153058508411050e-01
1.333606523275375366e+01 -2.349689346551895142e+01 5.349624982336536050e-01
1.370923417806625366e+01 -2.372907119989395142e+01 5.329330792883411050e-01
6.651983201503753662e+00 -1.070233780145645142e+01 4.311874738195911050e-01
1.369934648275375366e+01 -2.283441787958145142e+01 5.185440412024036050e-01
1.448865312337875366e+01 -2.376959854364395142e+01 5.214432111242786050e-01
1.454334062337875366e+01 -2.342951065301895142e+01 5.150650372961536050e-01
1.375220292806625366e+01 -2.522577530145645142e+01 6.834915509680286050e-01
1.412134355306625366e+01 -2.543512588739395142e+01 6.828201642492786050e-01
1.390698808431625366e+01 -2.454999405145645142e+01 6.670578351477161050e-01
1.471008867025375366e+01 -2.554303604364395142e+01 6.764572492102161050e-01
6.652959764003753662e+00 -1.070160537958145142e+01 4.833877912024036050e-01
1.510632890462875366e+01 -2.528900772333145142e+01 6.660202374914661050e-01
1.441382402181625366e+01 -2.363605362176895142e+01 6.424301496008411050e-01
1.412219804525375366e+01 -2.271552139520645142e+01 6.276443829992786050e-01
5.786992967128753662e+00 -9.850287020206451416e+00 5.248306622961536050e-01
5.961675584316253662e+00 -9.999212801456451416e+00 5.265091290930286050e-01
6.143926560878753662e+00 -1.015460830926895142e+01 5.282486310461536050e-01
6.334844529628753662e+00 -1.031732803583145142e+01 5.300796857336536050e-01
6.533697068691253662e+00 -1.048676162958145142e+01 5.319870343664661050e-01
6.742315232753753662e+00 -1.066461807489395142e+01 5.339859357336536050e-01
6.947637498378753662e+00 -1.082892471551895142e+01 5.356949201086536050e-01
7.159307420253753662e+00 -1.099591690301895142e+01 5.374039044836536050e-01
5.737066209316253662e+00 -9.751776278018951416e+00 5.696152081945911050e-01
5.909063279628753662e+00 -9.897650301456451416e+00 5.719650617102161050e-01
6.088140428066253662e+00 -1.004901748895645142e+01 5.746506085852161050e-01
6.275640428066253662e+00 -1.020758682489395142e+01 5.774734845617786050e-01
6.470830857753753662e+00 -1.037262588739395142e+01 5.804031720617786050e-01
6.675542771816253662e+00 -1.054584366083145142e+01 5.834854474524036050e-01
6.883794724941253662e+00 -1.071710830926895142e+01 5.864914288977161050e-01
7.096441209316253662e+00 -1.088800674676895142e+01 5.897110333899036050e-01
5.731084764003753662e+00 -9.737982332706451416e+00 6.155746808508411050e-01
5.911626756191253662e+00 -9.900335848331451416e+00 6.196182599524036050e-01
6.100713670253753662e+00 -1.007013565301895142e+01 6.238602033117786050e-01
6.299444139003753662e+00 -1.024860244989395142e+01 6.283005109289661050e-01
6.507207810878753662e+00 -1.043524795770645142e+01 6.329544415930286050e-01
6.726201951503753662e+00 -1.063190323114395142e+01 6.378525128820911050e-01
6.943120896816253662e+00 -1.081659561395645142e+01 6.423843732336536050e-01
7.165410935878753662e+00 -1.100165420770645142e+01 6.468857160070911050e-01
5.782354295253753662e+00 -9.834784090518951416e+00 6.654251447180286050e-01
5.961553514003753662e+00 -9.992376863956451416e+00 6.701095929602161050e-01
6.141363084316253662e+00 -1.014301162958145142e+01 6.747787824133411050e-01
6.329351365566253662e+00 -1.030072647333145142e+01 6.796768537024036050e-01
6.525030076503753662e+00 -1.046478897333145142e+01 6.847732892492786050e-01
6.730230271816253662e+00 -1.063666397333145142e+01 6.901138654211536050e-01
6.933721482753753662e+00 -1.079816299676895142e+01 6.950729718664661050e-01
7.141485154628753662e+00 -1.095917373895645142e+01 7.002914777258411050e-01
5.748296678066253662e+00 -9.767035067081451416e+00 7.095688214758411050e-01
5.918462693691253662e+00 -9.908636629581451416e+00 7.149093976477161050e-01
6.095586717128753662e+00 -1.005621963739395142e+01 7.204788556555286050e-01
6.280889451503753662e+00 -1.021051651239395142e+01 7.263077130774036050e-01
6.473638474941253662e+00 -1.037103897333145142e+01 7.323501935461536050e-01
6.675664842128753662e+00 -1.053925186395645142e+01 7.386978497961536050e-01
6.897954881191253662e+00 -1.073468643426895142e+01 7.460983624914661050e-01
7.123662889003753662e+00 -1.092706924676895142e+01 7.533768048742786050e-01
5.728155076503753662e+00 -9.725897371768951416e+00 7.544449201086536050e-01
5.914068162441253662e+00 -9.898260653018951416e+00 7.621048322180286050e-01
6.109258592128753662e+00 -1.007916885614395142e+01 7.701462140539661050e-01
6.314458787441253662e+00 -1.026911026239395142e+01 7.783249249914661050e-01
6.529912889003753662e+00 -1.046881729364395142e+01 7.871902814367786050e-01
6.758062303066253662e+00 -1.068073135614395142e+01 7.968796124914661050e-01
6.979864060878753662e+00 -1.087274795770645142e+01 8.054245343664661050e-01
1.480566972494125366e+01 -2.383466202020645142e+01 1.381245457218028605e+00
5.792241990566253662e+00 -9.847357332706451416e+00 8.069656720617786050e-01
5.982061326503753662e+00 -1.002448135614395142e+01 8.157242169836536050e-01
1.416028398275375366e+01 -2.497955948114395142e+01 1.558201633975841105e+00
1.449817460775375366e+01 -2.511798721551895142e+01 1.565678440616466105e+00
1.444043534994125366e+01 -2.454425674676895142e+01 1.537770115421153605e+00
1.497632402181625366e+01 -2.502277237176895142e+01 1.562153660343028605e+00
1.465393632650375366e+01 -2.401093155145645142e+01 1.512440525577403605e+00
1.479248613119125366e+01 -2.380719619989395142e+01 1.503544651553966105e+00
6.892217576503753662e+00 -1.057465225458145142e+01 -1.509811052819713950e-01
6.986333787441253662e+00 -1.054755264520645142e+01 -1.539565691491588950e-01
7.054815232753753662e+00 -1.047821670770645142e+01 -1.550094255944713950e-01
7.123418748378753662e+00 -1.040888077020645142e+01 -1.560622820397838950e-01
7.194707810878753662e+00 -1.034503799676895142e+01 -1.573745378991588950e-01
7.268194139003753662e+00 -1.028436905145645142e+01 -1.588698992272838950e-01
7.341070115566253662e+00 -1.022394424676895142e+01 -1.603500017663463950e-01
7.411016404628753662e+00 -1.015949112176895142e+01 -1.618606218835338950e-01
7.515752732753753662e+00 -1.162421280145645142e+01 -1.472121843835338950e-01
7.604864060878753662e+00 -1.156940323114395142e+01 -1.495162615319713950e-01
7.684331834316253662e+00 -1.149872452020645142e+01 -1.510726580163463950e-01
7.766118943691253662e+00 -1.143170791864395142e+01 -1.524917253991588950e-01
7.855718553066253662e+00 -1.137799698114395142e+01 -1.548568377038463950e-01
7.940069139003753662e+00 -1.131537491083145142e+01 -1.570846209069713950e-01
8.027715623378753662e+00 -1.125873428583145142e+01 -1.592971453210338950e-01
8.115362107753753662e+00 -1.120197159051895142e+01 -1.614944109460338950e-01
8.376592576503753662e+00 -1.307367569208145142e+01 -1.486312517663463950e-01
8.448614060878753662e+00 -1.296344619989395142e+01 -1.492416033288463950e-01
8.520147264003753662e+00 -1.285407119989395142e+01 -1.498519548913463950e-01
8.591314256191253662e+00 -1.274518448114395142e+01 -1.504470476647838950e-01
8.661748826503753662e+00 -1.263751846551895142e+01 -1.510421404382213950e-01
8.731817185878753662e+00 -1.253021866083145142e+01 -1.516524920007213950e-01
8.809331834316253662e+00 -1.243634659051895142e+01 -1.527663836022838950e-01
8.914068162441253662e+00 -1.238397842645645142e+01 -1.556960711022838950e-01
1.135730546712875366e+01 -1.809674698114395142e+01 -2.626144060632213950e-01
1.155786699056625366e+01 -1.810565811395645142e+01 -2.692519793054088950e-01
1.175842851400375366e+01 -1.811066299676895142e+01 -2.763320574304088950e-01
9.579351365566253662e+00 -1.431769424676895142e+01 -1.433669695397838950e-01
9.638433396816253662e+00 -1.416351944208145142e+01 -1.431075701257213950e-01
9.696905076503753662e+00 -1.401068741083145142e+01 -1.428634295007213950e-01
8.841436326503753662e+00 -1.248236709833145142e+01 -9.008327813353389502e-02
9.835576951503753662e+00 -1.374774795770645142e+01 -1.441451677819713950e-01
1.197754472494125366e+01 -1.913837295770645142e+01 -2.015029558679088950e-01
1.218604081869125366e+01 -1.914081436395645142e+01 -2.082931170007213950e-01
1.246191972494125366e+01 -1.924909073114395142e+01 -2.184554705163463950e-01
1.274487870931625366e+01 -1.936005264520645142e+01 -2.288772234460338950e-01
1.298682206869125366e+01 -1.940045791864395142e+01 -2.371780046960338950e-01
1.321729081869125366e+01 -1.941693741083145142e+01 -2.448379168054088950e-01
8.842534959316253662e+00 -1.248151260614395142e+01 -2.569118828978389502e-02
1.368518632650375366e+01 -1.945050674676895142e+01 -2.604018816491588950e-01
1.283508867025375366e+01 -2.057941299676895142e+01 -1.397811541100963950e-01
1.313452714681625366e+01 -2.070538955926895142e+01 -1.491042742272838950e-01
1.340723222494125366e+01 -2.077973037958145142e+01 -1.578323015710338950e-01
1.368591874837875366e+01 -2.085565811395645142e+01 -1.667434343835338950e-01
1.395276445150375366e+01 -2.090753799676895142e+01 -1.751205095788463950e-01
1.421375077962875366e+01 -2.094367080926895142e+01 -1.832076677819713950e-01
8.843633592128753662e+00 -1.248065811395645142e+01 3.905185370240360498e-02
1.491626542806625366e+01 -2.127069717645645142e+01 -2.072555193444713950e-01
1.340357011556625366e+01 -2.153290420770645142e+01 -5.250088067259639502e-02
1.371362870931625366e+01 -2.165875869989395142e+01 -6.145778985228389502e-02
1.406336015462875366e+01 -2.184015518426895142e+01 -7.169643731322139502e-02
1.442065995931625366e+01 -2.202155166864395142e+01 -8.214870782103389502e-02
1.474451249837875366e+01 -2.214154678583145142e+01 -9.147182793822139502e-02
1.504236406087875366e+01 -2.221198135614395142e+01 -9.990993828978389502e-02
8.844732224941253662e+00 -1.247980362176895142e+01 1.034439435461536050e-01
1.577222245931625366e+01 -2.253449112176895142e+01 -1.211043962975963950e-01
1.394690507650375366e+01 -2.244354873895645142e+01 4.500278143677860498e-02
1.416113847494125366e+01 -2.239386612176895142e+01 3.960117010865360498e-02
1.461646074056625366e+01 -2.273297744989395142e+01 2.899631171021610498e-02
1.497705644369125366e+01 -2.290326553583145142e+01 2.003940253052860498e-02
1.534595292806625366e+01 -2.307745987176895142e+01 1.088412909302860498e-02
1.571314042806625366e+01 -2.323737198114395142e+01 1.759373233653604984e-03
8.845830857753753662e+00 -1.247894912958145142e+01 1.678207746008411050e-01
1.640772050619125366e+01 -2.347101455926895142e+01 -1.620022149290889502e-02
1.440955156087875366e+01 -2.321796280145645142e+01 1.541031232336536050e-01
1.428638261556625366e+01 -2.259589248895645142e+01 1.541488996008411050e-01
1.497034257650375366e+01 -2.330219131708145142e+01 1.417892804602161050e-01
1.461169999837875366e+01 -2.231659561395645142e+01 1.455582013586536050e-01
1.481775468587875366e+01 -2.224689346551895142e+01 1.405838361242786050e-01
1.626721757650375366e+01 -2.408307510614395142e+01 1.158951154211536050e-01
8.846929490566253662e+00 -1.247809463739395142e+01 2.325485578039661050e-01
1.622327226400375366e+01 -2.319318252801895142e+01 1.129654279211536050e-01
1.434937089681625366e+01 -2.311139541864395142e+01 2.740829816320911050e-01
1.428345292806625366e+01 -2.258637100458145142e+01 2.710617413977161050e-01
1.420764726400375366e+01 -2.206012588739395142e+01 2.682388654211536050e-01
1.537293046712875366e+01 -2.352374893426895142e+01 2.568710675695911050e-01
1.570642656087875366e+01 -2.363129287958145142e+01 2.510269513586536050e-01
1.572900956869125366e+01 -2.325202041864395142e+01 2.474258771399036050e-01
8.848028123378753662e+00 -1.247724014520645142e+01 2.969253888586536050e-01
1.618128007650375366e+01 -2.312628799676895142e+01 2.372787824133411050e-01
1.411585038900375366e+01 -2.271332412958145142e+01 3.931015363195911050e-01
1.433167070150375366e+01 -2.266107803583145142e+01 3.886459699133411050e-01
1.444251054525375366e+01 -2.243634659051895142e+01 3.839462628820911050e-01
1.455725663900375366e+01 -2.222052627801895142e+01 3.792923322180286050e-01
1.474695390462875366e+01 -2.212689834833145142e+01 3.747909894445911050e-01
1.609924882650375366e+01 -2.381525284051895142e+01 3.714187970617786050e-01
8.849126756191253662e+00 -1.247626358270645142e+01 3.616531720617786050e-01
1.613940995931625366e+01 -2.305951553583145142e+01 3.615158429602161050e-01
1.433948320150375366e+01 -2.308478409051895142e+01 5.126388898352161050e-01
1.437183183431625366e+01 -2.272247940301895142e+01 5.063217511633411050e-01
1.446375077962875366e+01 -2.246600967645645142e+01 5.008133283117786050e-01
1.451465409994125366e+01 -2.214801651239395142e+01 4.949386945227161050e-01
1.471484941244125366e+01 -2.207208877801895142e+01 4.906662335852161050e-01
1.533240312337875366e+01 -2.263385635614395142e+01 4.902695050695911050e-01
8.850225389003753662e+00 -1.247540909051895142e+01 4.260300031164661050e-01
1.628052324056625366e+01 -2.326361709833145142e+01 4.859207501867786050e-01
1.412219804525375366e+01 -2.271417862176895142e+01 6.276138654211536050e-01
1.421021074056625366e+01 -2.245062881708145142e+01 6.212356915930286050e-01
1.489221757650375366e+01 -2.315558487176895142e+01 6.259506574133411050e-01
1.530029863119125366e+01 -2.339325577020645142e+01 6.254623761633411050e-01
1.535962480306625366e+01 -2.307465225458145142e+01 6.183517804602161050e-01
1.542297929525375366e+01 -2.276813369989395142e+01 6.114395490149036050e-01
8.851201951503753662e+00 -1.247455459833145142e+01 4.907577863195911050e-01
1.604358476400375366e+01 -2.290827041864395142e+01 6.069534650305286050e-01
7.160406053066253662e+00 -1.099725967645645142e+01 5.374191632727161050e-01
7.381353318691253662e+00 -1.117157608270645142e+01 5.392807355383411050e-01
7.612310349941253662e+00 -1.135370498895645142e+01 5.412491193274036050e-01
7.854986131191253662e+00 -1.154498916864395142e+01 5.432937970617786050e-01
8.108404099941253662e+00 -1.174494034051895142e+01 5.454452863195911050e-01
8.375127732753753662e+00 -1.195526748895645142e+01 5.477035871008411050e-01
8.654302537441253662e+00 -1.217548233270645142e+01 5.500686994055286050e-01
8.947881639003753662e+00 -1.240704971551895142e+01 5.525406232336536050e-01
7.097661912441253662e+00 -1.088947159051895142e+01 5.897415509680286050e-01
7.326177537441253662e+00 -1.107819229364395142e+01 5.928848615149036050e-01
7.566289842128753662e+00 -1.127680069208145142e+01 5.965011945227161050e-01
7.819463670253753662e+00 -1.148615127801895142e+01 6.003006329992786050e-01
8.084722459316253662e+00 -1.170563369989395142e+01 6.042984357336536050e-01
8.365117967128753662e+00 -1.193756729364395142e+01 6.085098615149036050e-01
8.659795701503753662e+00 -1.218134170770645142e+01 6.129501691320911050e-01
8.971685349941253662e+00 -1.243964248895645142e+01 6.179855695227161050e-01
7.166631639003753662e+00 -1.100311905145645142e+01 6.469162335852161050e-01
7.399785935878753662e+00 -1.119733291864395142e+01 6.517990460852161050e-01
7.644658982753753662e+00 -1.140131241083145142e+01 6.569259992102161050e-01
7.891241014003753662e+00 -1.159796768426895142e+01 6.617935529211536050e-01
8.143438279628753662e+00 -1.179486709833145142e+01 6.666611066320911050e-01
8.408697068691253662e+00 -1.200189834833145142e+01 6.717575421789661050e-01
8.686162889003753662e+00 -1.221857315301895142e+01 6.771133771399036050e-01
8.974737107753753662e+00 -1.244171768426895142e+01 6.826065412024036050e-01
7.142705857753753662e+00 -1.096051651239395142e+01 7.003372540930286050e-01
7.359991014003753662e+00 -1.112921768426895142e+01 7.053879132727161050e-01
7.586553514003753662e+00 -1.130499893426895142e+01 7.109573712805286050e-01
7.824346482753753662e+00 -1.148932510614395142e+01 7.168014874914661050e-01
8.072393357753753662e+00 -1.168170791864395142e+01 7.228897443274036050e-01
8.333257615566253662e+00 -1.188385635614395142e+01 7.292831769445911050e-01
8.632085740566253662e+00 -1.213458877801895142e+01 7.372940412024036050e-01
8.952032029628753662e+00 -1.240570694208145142e+01 7.463119855383411050e-01
7.125005662441253662e+00 -1.092853409051895142e+01 7.534378400305286050e-01
7.362432420253753662e+00 -1.113117080926895142e+01 7.612961163977161050e-01
7.612310349941253662e+00 -1.134418350458145142e+01 7.695663800695911050e-01
7.876226365566253662e+00 -1.156940323114395142e+01 7.782944074133411050e-01
8.153692185878753662e+00 -1.180609756708145142e+01 7.874801984289661050e-01
8.447759568691253662e+00 -1.205707412958145142e+01 7.972153058508411050e-01
1.565161699056625366e+01 -2.269513565301895142e+01 1.212361179874278605e+00
1.587817949056625366e+01 -2.264044815301895142e+01 1.210102879093028605e+00
1.480603593587875366e+01 -2.383368545770645142e+01 1.381199680850841105e+00
1.490161699056625366e+01 -2.356195694208145142e+01 1.369648777530528605e+00
1.504089921712875366e+01 -2.336664444208145142e+01 1.361485325382091105e+00
1.603723710775375366e+01 -2.453473526239395142e+01 1.413288914249278605e+00
1.514429277181625366e+01 -2.270978409051895142e+01 1.332646214053966105e+00
1.597754472494125366e+01 -2.358905655145645142e+01 1.372975193546153605e+00
1.561707109212875366e+01 -2.263837295770645142e+01 1.331150852725841105e+00
1.585059159994125366e+01 -2.259491592645645142e+01 1.329731785343028605e+00
1.479273027181625366e+01 -2.380609756708145142e+01 1.503498875186778605e+00
1.488660234212875366e+01 -2.353217178583145142e+01 1.490361057803966105e+00
1.514075273275375366e+01 -2.352326065301895142e+01 1.491062962100841105e+00
1.532434648275375366e+01 -2.339691787958145142e+01 1.485936008975841105e+00
1.515137284994125366e+01 -2.271588760614395142e+01 1.453083836124278605e+00
1.531140702962875366e+01 -2.256415420770645142e+01 1.446644627139903605e+00
1.554663652181625366e+01 -2.252777725458145142e+01 1.445988499210216105e+00
1.553259843587875366e+01 -2.212055069208145142e+01 1.427372776553966105e+00
7.411382615566253662e+00 -1.015936905145645142e+01 -1.618758806725963950e-01
7.484502732753753662e+00 -1.009992080926895142e+01 -1.633407244225963950e-01
7.554571092128753662e+00 -1.003620010614395142e+01 -1.648513445397838950e-01
7.624761521816253662e+00 -9.972479403018951416e+00 -1.663619646569713950e-01
7.694585740566253662e+00 -9.909002840518951416e+00 -1.678573259850963950e-01
7.764532029628753662e+00 -9.845526278018951416e+00 -1.693679461022838950e-01
7.842657029628753662e+00 -9.793890535831451416e+00 -1.715346941491588950e-01
7.922735154628753662e+00 -9.744574129581451416e+00 -1.741134295007213950e-01
8.115606248378753662e+00 -1.120160537958145142e+01 -1.614944109460338950e-01
8.200323045253753662e+00 -1.114069229364395142e+01 -1.637221941491588950e-01
8.285039842128753662e+00 -1.107965713739395142e+01 -1.659499773522838950e-01
8.374029099941253662e+00 -1.102399307489395142e+01 -1.681472429772838950e-01
8.458745896816253662e+00 -1.096295791864395142e+01 -1.703750261804088950e-01
8.539678514003753662e+00 -1.089618545770645142e+01 -1.726333269616588950e-01
8.624395310878753662e+00 -1.083527237176895142e+01 -1.748611101647838950e-01
8.709112107753753662e+00 -1.077423721551895142e+01 -1.770736345788463950e-01
8.914556443691253662e+00 -1.238397842645645142e+01 -1.557113298913463950e-01
9.008794724941253662e+00 -1.231610733270645142e+01 -1.581832537194713950e-01
9.103155076503753662e+00 -1.224811416864395142e+01 -1.606704363366588950e-01
9.197759568691253662e+00 -1.217999893426895142e+01 -1.631423601647838950e-01
9.292119920253753662e+00 -1.211200577020645142e+01 -1.656295427819713950e-01
9.386724412441253662e+00 -1.204376846551895142e+01 -1.681014666100963950e-01
9.480962693691253662e+00 -1.197589737176895142e+01 -1.705886492272838950e-01
9.575323045253753662e+00 -1.190790420770645142e+01 -1.730605730554088950e-01
9.836065232753753662e+00 -1.374750381708145142e+01 -1.441604265710338950e-01
9.986089646816253662e+00 -1.373651748895645142e+01 -1.490737566491588950e-01
1.013110917806625366e+01 -1.371637588739395142e+01 -1.540633806725963950e-01
1.025940507650375366e+01 -1.366962295770645142e+01 -1.580764421960338950e-01
1.038770097494125366e+01 -1.362287002801895142e+01 -1.620895037194713950e-01
1.051709550619125366e+01 -1.357562881708145142e+01 -1.661330828210338950e-01
1.064673417806625366e+01 -1.352850967645645142e+01 -1.701766619225963950e-01
1.077051347494125366e+01 -1.347272354364395142e+01 -1.742965349694713950e-01
1.368628495931625366e+01 -1.945087295770645142e+01 -2.604476580163463950e-01
1.398755449056625366e+01 -1.955939346551895142e+01 -2.717086443444713950e-01
1.312610429525375366e+01 -1.799725967645645142e+01 -2.266036638757213950e-01
1.317175859212875366e+01 -1.775946670770645142e+01 -2.257033953210338950e-01
1.160840409994125366e+01 -1.530573135614395142e+01 -1.477615007897838950e-01
1.171558183431625366e+01 -1.519916397333145142e+01 -1.502792009850963950e-01
1.111707109212875366e+01 -1.415302139520645142e+01 -1.193343767663463950e-01
1.198230546712875366e+01 -1.505853897333145142e+01 -1.578170427819713950e-01
1.491760820150375366e+01 -2.127142959833145142e+01 -2.073012957116588950e-01
1.520715898275375366e+01 -2.133051162958145142e+01 -2.160598406335338950e-01
1.549585527181625366e+01 -2.138214737176895142e+01 -2.253371843835338950e-01
1.577844804525375366e+01 -2.141791397333145142e+01 -2.343246111413463950e-01
1.605713456869125366e+01 -2.144428116083145142e+01 -2.431441912194713950e-01
1.631995195150375366e+01 -2.144245010614395142e+01 -2.512771257897838950e-01
1.111829179525375366e+01 -1.415204483270645142e+01 -4.226223321165889502e-02
1.683948320150375366e+01 -2.142084366083145142e+01 -2.678634295007213950e-01
1.577380937337875366e+01 -2.253546768426895142e+01 -1.211501726647838950e-01
1.608106034994125366e+01 -2.259784561395645142e+01 -1.300155291100963950e-01
1.639075273275375366e+01 -2.265729385614395142e+01 -1.389571795007213950e-01
1.675891679525375366e+01 -2.279096084833145142e+01 -1.497604021569713950e-01
1.715027421712875366e+01 -2.294867569208145142e+01 -1.612960466882213950e-01
1.741553300619125366e+01 -2.292413955926895142e+01 -1.687270769616588950e-01
1.111963456869125366e+01 -1.415106827020645142e+01 3.439792303834110498e-02
1.818091386556625366e+01 -2.317426162958145142e+01 -1.911117205163463950e-01
1.640857499837875366e+01 -2.347101455926895142e+01 -1.621548028197139502e-02
1.642383378744125366e+01 -2.309210830926895142e+01 -1.694790215697139502e-02
1.674414628744125366e+01 -2.315778213739395142e+01 -2.442470879759639502e-02
1.673157304525375366e+01 -2.274787002801895142e+01 -2.448574395384639502e-02
1.796887773275375366e+01 -2.407367569208145142e+01 -5.497280450072139502e-02
1.837000077962875366e+01 -2.421393448114395142e+01 -6.513515801634639502e-02
1.112085527181625366e+01 -1.414996963739395142e+01 1.110580792883411050e-01
1.919043534994125366e+01 -2.449213272333145142e+01 -8.663479180540889502e-02
1.622376054525375366e+01 -2.319245010614395142e+01 1.129501691320911050e-01
1.658789628744125366e+01 -2.332599502801895142e+01 1.052139630774036050e-01
1.676123613119125366e+01 -2.317755752801895142e+01 1.005447736242786050e-01
1.683691972494125366e+01 -2.289118057489395142e+01 9.749301581177860498e-02
1.685376542806625366e+01 -2.253034073114395142e+01 9.543307928834110498e-02
1.909937089681625366e+01 -2.519782119989395142e+01 5.624850897584110498e-02
1.112219804525375366e+01 -1.414899307489395142e+01 1.881302228430286050e-01
2.002808183431625366e+01 -2.558429580926895142e+01 3.673251776490360498e-02
1.618176835775375366e+01 -2.312555557489395142e+01 2.372635236242786050e-01
1.629993242025375366e+01 -2.290241104364395142e+01 2.329910626867786050e-01
1.732874101400375366e+01 -2.398383194208145142e+01 2.211807599524036050e-01
1.691126054525375366e+01 -2.299103409051895142e+01 2.213486066320911050e-01
1.934326738119125366e+01 -2.595990616083145142e+01 1.968582501867786050e-01
1.723377031087875366e+01 -2.266425186395645142e+01 2.120712628820911050e-01
1.112341874837875366e+01 -1.414801651239395142e+01 2.647751203039661050e-01
2.078748124837875366e+01 -2.657367569208145142e+01 1.727035871008411050e-01
1.613989824056625366e+01 -2.305878311395645142e+01 3.615005841711536050e-01
1.718970292806625366e+01 -2.419147354364395142e+01 3.567398419836536050e-01
1.732019609212875366e+01 -2.396674209833145142e+01 3.517349591711536050e-01
1.686292070150375366e+01 -2.291864639520645142e+01 3.470810285070911050e-01
1.720215409994125366e+01 -2.300202041864395142e+01 3.421371808508411050e-01
1.723987382650375366e+01 -2.266791397333145142e+01 3.374222150305286050e-01
1.112476152181625366e+01 -1.414703994989395142e+01 3.418472638586536050e-01
1.748999589681625366e+01 -2.225153213739395142e+01 3.279922833899036050e-01
1.628088945150375366e+01 -2.326276260614395142e+01 4.859054913977161050e-01
1.719299882650375366e+01 -2.419147354364395142e+01 4.870041242102161050e-01
1.720703691244125366e+01 -2.380023819208145142e+01 4.806106915930286050e-01
1.698767656087875366e+01 -2.308905655145645142e+01 4.726150861242786050e-01
1.698718827962875366e+01 -2.270099502801895142e+01 4.664810529211536050e-01
1.707947343587875366e+01 -2.244623428583145142e+01 4.610794415930286050e-01
1.112598222494125366e+01 -1.414594131708145142e+01 4.184921613195911050e-01
1.759424394369125366e+01 -2.238373428583145142e+01 4.524124494055286050e-01
1.604419511556625366e+01 -2.290778213739395142e+01 6.069382062414661050e-01
1.719629472494125366e+01 -2.419135147333145142e+01 6.179703107336536050e-01
2.041235917806625366e+01 -2.837225967645645142e+01 6.596573224524036050e-01
2.087195390462875366e+01 -2.853363662958145142e+01 6.572006574133411050e-01
1.028455156087875366e+01 -1.345673233270645142e+01 4.919937482336536050e-01
1.063599199056625366e+01 -1.371307998895645142e+01 4.927109113195911050e-01
1.100452226400375366e+01 -1.398151260614395142e+01 4.938553204992786050e-01
1.137537187337875366e+01 -1.424115616083145142e+01 4.944046369055286050e-01
8.949590623378753662e+00 -1.240888077020645142e+01 5.525711408117786050e-01
9.232427537441253662e+00 -1.261420303583145142e+01 5.546615949133411050e-01
9.527593553066253662e+00 -1.282770401239395142e+01 5.568130841711536050e-01
9.838506639003753662e+00 -1.305255752801895142e+01 5.590866437414661050e-01
1.016406816244125366e+01 -1.328803116083145142e+01 5.614670148352161050e-01
1.050769609212875366e+01 -1.353656631708145142e+01 5.639694562414661050e-01
1.088257402181625366e+01 -1.381635147333145142e+01 5.669144025305286050e-01
1.128503984212875366e+01 -1.412030655145645142e+01 5.701492658117786050e-01
8.973516404628753662e+00 -1.244171768426895142e+01 6.180313458899036050e-01
9.268926560878753662e+00 -1.266474014520645142e+01 6.216781964758411050e-01
9.581914842128753662e+00 -1.290265518426895142e+01 6.259659162024036050e-01
9.912847459316253662e+00 -1.315424209833145142e+01 6.304825177649036050e-01
1.026074784994125366e+01 -1.341876846551895142e+01 6.352432599524036050e-01
1.062683671712875366e+01 -1.369537979364395142e+01 6.402023663977161050e-01
1.099060624837875366e+01 -1.395770889520645142e+01 6.447800031164661050e-01
1.135791581869125366e+01 -1.421271377801895142e+01 6.495712628820911050e-01
8.974859178066253662e+00 -1.244135147333145142e+01 6.825912824133411050e-01
9.257085740566253662e+00 -1.264508682489395142e+01 6.876724591711536050e-01
9.550176560878753662e+00 -1.285492569208145142e+01 6.929062238195911050e-01
9.858648240566253662e+00 -1.307562881708145142e+01 6.983993878820911050e-01
1.018128007650375366e+01 -1.330658584833145142e+01 7.041672101477161050e-01
1.052149003744125366e+01 -1.355023819208145142e+01 7.102402081945911050e-01
1.089343827962875366e+01 -1.382550674676895142e+01 7.171524396399036050e-01
1.130737870931625366e+01 -1.414386612176895142e+01 7.252090802649036050e-01
8.953985154628753662e+00 -1.240790420770645142e+01 7.463882794836536050e-01
9.259038865566253662e+00 -1.264545303583145142e+01 7.537735333899036050e-01
9.580327928066253662e+00 -1.289533096551895142e+01 7.619064679602161050e-01
9.920537889003753662e+00 -1.315997940301895142e+01 7.705124249914661050e-01
1.027918046712875366e+01 -1.343891006708145142e+01 7.795914044836536050e-01
2.449768632650375366e+01 -3.246466690301895142e+01 1.414234959171153605e+00
2.505945390462875366e+01 -3.266791397333145142e+01 1.420399509952403605e+00
2.291675370931625366e+01 -2.932147842645645142e+01 1.309117161319591105e+00
1.587915605306625366e+01 -2.264044815301895142e+01 1.210102879093028605e+00
1.593433183431625366e+01 -2.233453994989395142e+01 1.198475681827403605e+00
2.343811601400375366e+01 -3.265924698114395142e+01 1.602009617374278605e+00
2.274719804525375366e+01 -3.113263565301895142e+01 1.542836033389903605e+00
2.198413652181625366e+01 -2.955512100458145142e+01 1.481648289249278605e+00
2.201965898275375366e+01 -2.910480362176895142e+01 1.464466892764903605e+00
2.272803300619125366e+01 -2.956061416864395142e+01 1.482731663272716105e+00
2.287280839681625366e+01 -2.925824600458145142e+01 1.471348606632091105e+00
1.585071367025375366e+01 -2.259381729364395142e+01 1.329686008975841105e+00
1.609155839681625366e+01 -2.255817276239395142e+01 1.329121433780528605e+00
2.347205156087875366e+01 -3.270099502801895142e+01 1.783375584171153605e+00
2.224597734212875366e+01 -3.042413955926895142e+01 1.682179295108653605e+00
2.198755449056625366e+01 -2.955390030145645142e+01 1.644688450382091105e+00
2.235400956869125366e+01 -2.955133682489395142e+01 1.646870457218028605e+00
2.443530839681625366e+01 -3.182489639520645142e+01 1.750355564639903605e+00
2.283496659994125366e+01 -2.920294815301895142e+01 1.634114109561778605e+00
1.553211015462875366e+01 -2.211847549676895142e+01 1.427265965030528605e+00
1.889453691244125366e+01 -2.662140518426895142e+01 1.654393040225841105e+00
2.342468827962875366e+01 -3.262665420770645142e+01 1.958439671085216105e+00
2.220899003744125366e+01 -3.036615616083145142e+01 1.847203098819591105e+00
2.200903886556625366e+01 -2.957745987176895142e+01 1.809849583194591105e+00
2.400232499837875366e+01 -3.177509170770645142e+01 1.923313938663341105e+00
2.279492753744125366e+01 -2.963776260614395142e+01 1.817768894718028605e+00
2.444580644369125366e+01 -3.130219131708145142e+01 1.905567966983653605e+00
7.922979295253753662e+00 -9.744452059268951416e+00 -1.741286882897838950e-01
8.007451951503753662e+00 -9.700506746768951416e+00 -1.767226824304088950e-01
8.088262498378753662e+00 -9.651678621768951416e+00 -1.793319353600963950e-01
8.169683396816253662e+00 -9.602484285831451416e+00 -1.819411882897838950e-01
8.250860154628753662e+00 -9.553289949893951416e+00 -1.845504412194713950e-01
8.332647264003753662e+00 -9.503851473331451416e+00 -1.871749529382213950e-01
8.414190232753753662e+00 -9.454535067081451416e+00 -1.897842058679088950e-01
8.491949021816253662e+00 -9.400335848331451416e+00 -1.923934587975963950e-01
8.709478318691253662e+00 -1.077411514520645142e+01 -1.770888933679088950e-01
8.791021287441253662e+00 -1.070892959833145142e+01 -1.793319353600963950e-01
8.872564256191253662e+00 -1.064374405145645142e+01 -1.815597185632213950e-01
8.958623826503753662e+00 -1.058356338739395142e+01 -1.837875017663463950e-01
9.040166795253753662e+00 -1.051837784051895142e+01 -1.860305437585338950e-01
9.117803514003753662e+00 -1.044769912958145142e+01 -1.883041033288463950e-01
9.199346482753753662e+00 -1.038251358270645142e+01 -1.905471453210338950e-01
9.281011521816253662e+00 -1.031732803583145142e+01 -1.927901873132213950e-01
9.575445115566253662e+00 -1.190753799676895142e+01 -1.730605730554088950e-01
9.666265428066253662e+00 -1.183502823114395142e+01 -1.755477556725963950e-01
9.757085740566253662e+00 -1.176251846551895142e+01 -1.780349382897838950e-01
9.848272264003753662e+00 -1.168976455926895142e+01 -1.805373796960338950e-01
9.939092576503753662e+00 -1.161713272333145142e+01 -1.830245623132213950e-01
1.003027909994125366e+01 -1.154437881708145142e+01 -1.855270037194713950e-01
1.012122148275375366e+01 -1.147186905145645142e+01 -1.880294451257213950e-01
1.021204179525375366e+01 -1.139935928583145142e+01 -1.905166277429088950e-01
1.077112382650375366e+01 -1.347260147333145142e+01 -1.743117937585338950e-01
1.088220781087875366e+01 -1.339972549676895142e+01 -1.771651873132213950e-01
1.096448320150375366e+01 -1.328974014520645142e+01 -1.788436541100963950e-01
1.104273027181625366e+01 -1.317511612176895142e+01 -1.803084978600963950e-01
1.112036699056625366e+01 -1.306146866083145142e+01 -1.817733416100963950e-01
1.119800370931625366e+01 -1.294794327020645142e+01 -1.832229265710338950e-01
1.127905839681625366e+01 -1.284027725458145142e+01 -1.848861345788463950e-01
1.137463945150375366e+01 -1.275043350458145142e+01 -1.877242693444713950e-01
1.198279374837875366e+01 -1.505817276239395142e+01 -1.578170427819713950e-01
1.210620683431625366e+01 -1.497406631708145142e+01 -1.613265642663463950e-01
1.222974199056625366e+01 -1.488983780145645142e+01 -1.648513445397838950e-01
1.235388749837875366e+01 -1.480512100458145142e+01 -1.683761248132213950e-01
1.249292558431625366e+01 -1.473920303583145142e+01 -1.726028093835338950e-01
1.265430253744125366e+01 -1.469818741083145142e+01 -1.778365740319713950e-01
1.280823320150375366e+01 -1.464765030145645142e+01 -1.827346453210338950e-01
1.290808671712875366e+01 -1.453253799676895142e+01 -1.851302752038463950e-01
1.684045976400375366e+01 -2.142096573114395142e+01 -2.678939470788463950e-01
1.708325761556625366e+01 -2.138226944208145142e+01 -2.747909197350963950e-01
1.733337968587875366e+01 -2.134955459833145142e+01 -2.825881609460338950e-01
1.440527909994125366e+01 -1.735590225458145142e+01 -1.657821306725963950e-01
1.452588456869125366e+01 -1.722443252801895142e+01 -1.688644060632213950e-01
1.348291581869125366e+01 -1.569257217645645142e+01 -1.266128191491588950e-01
1.476672929525375366e+01 -1.696210342645645142e+01 -1.750289568444713950e-01
1.495215409994125366e+01 -1.690802627801895142e+01 -1.811629900475963950e-01
1.818372148275375366e+01 -2.317658096551895142e+01 -1.911880144616588950e-01
1.865808671712875366e+01 -2.340619522333145142e+01 -2.055007586022838950e-01
1.899561113119125366e+01 -2.344989639520645142e+01 -2.154037127038463950e-01
1.932056230306625366e+01 -2.347016006708145142e+01 -2.248946795007213950e-01
1.964954179525375366e+01 -2.349066787958145142e+01 -2.345077166100963950e-01
1.348438066244125366e+01 -1.569135147333145142e+01 -3.768459649290889502e-02
2.045972245931625366e+01 -2.369342666864395142e+01 -2.585097918054088950e-01
2.082361406087875366e+01 -2.373480850458145142e+01 -2.691756853600963950e-01
1.919275468587875366e+01 -2.449371963739395142e+01 -8.668056817259639502e-02
1.961511796712875366e+01 -2.463397842645645142e+01 -9.756008477415889502e-02
2.003162187337875366e+01 -2.475678116083145142e+01 -1.075545916100963950e-01
2.046289628744125366e+01 -2.488703018426895142e+01 -1.186629900475963950e-01
2.100159257650375366e+01 -2.514032608270645142e+01 -1.324111589929088950e-01
1.348584550619125366e+01 -1.569025284051895142e+01 5.173190741334110498e-02
2.199439042806625366e+01 -2.550409561395645142e+01 -1.587020525475963950e-01
2.245483964681625366e+01 -2.562738662958145142e+01 -1.705886492272838950e-01
2.003052324056625366e+01 -2.558600479364395142e+01 3.668674139771610498e-02
2.049451249837875366e+01 -2.576117569208145142e+01 2.675326971802860498e-02
2.095862382650375366e+01 -2.592499405145645142e+01 1.674350409302860498e-02
2.142249101400375366e+01 -2.607599502801895142e+01 6.687962100841104984e-03
2.192224687337875366e+01 -2.626154190301895142e+01 -4.038966610096395016e-03
1.348731034994125366e+01 -1.568903213739395142e+01 1.406601300695911050e-01
2.297009843587875366e+01 -2.665289932489395142e+01 -2.651516289915889502e-02
2.344702714681625366e+01 -2.677631241083145142e+01 -3.699795098509639502e-02
2.078955644369125366e+01 -2.657489639520645142e+01 1.726730695227161050e-01
2.126343339681625366e+01 -2.674579483270645142e+01 1.644638410070911050e-01
2.173071855306625366e+01 -2.689691787958145142e+01 1.562088361242786050e-01
2.223962968587875366e+01 -2.708734756708145142e+01 1.474502912024036050e-01
2.274426835775375366e+01 -2.726178604364395142e+01 1.386307111242786050e-01
1.348877519369125366e+01 -1.568793350458145142e+01 2.295883527258411050e-01
2.374170488119125366e+01 -2.756000381708145142e+01 1.208237042883411050e-01
2.424512284994125366e+01 -2.769904190301895142e+01 1.117447247961536050e-01
1.748987382650375366e+01 -2.225006729364395142e+01 3.279770246008411050e-01
1.754334062337875366e+01 -2.195355850458145142e+01 3.234756818274036050e-01
2.247961992025375366e+01 -2.783905655145645142e+01 3.079574933508411050e-01
2.298169511556625366e+01 -2.800495010614395142e+01 3.011673322180286050e-01
2.345776933431625366e+01 -2.812897354364395142e+01 2.943466535070911050e-01
1.349097245931625366e+01 -1.568744522333145142e+01 3.189895978430286050e-01
2.447754472494125366e+01 -2.842462784051895142e+01 2.800644269445911050e-01
2.503088945150375366e+01 -2.860700088739395142e+01 2.725876203039661050e-01
1.759631913900375366e+01 -2.238507705926895142e+01 4.524124494055286050e-01
1.755274003744125366e+01 -2.196137100458145142e+01 4.464462628820911050e-01
2.317542070150375366e+01 -2.871369034051895142e+01 4.696243634680286050e-01
2.365357011556625366e+01 -2.883490616083145142e+01 4.645431867102161050e-01
2.417590898275375366e+01 -2.900141006708145142e+01 4.595077863195911050e-01
1.349658769369125366e+01 -1.569135147333145142e+01 4.079330792883411050e-01
2.530078691244125366e+01 -2.939203506708145142e+01 4.491928449133411050e-01
2.422034257650375366e+01 -2.765973526239395142e+01 4.379623761633411050e-01
1.137756913900375366e+01 -1.424310928583145142e+01 4.944198956945911050e-01
1.174805253744125366e+01 -1.449054580926895142e+01 4.948318829992786050e-01
1.213843339681625366e+01 -1.475177627801895142e+01 4.948318829992786050e-01
1.255017656087875366e+01 -1.502680069208145142e+01 4.952743878820911050e-01
1.298279374837875366e+01 -1.531574112176895142e+01 4.957474103430286050e-01
1.344116777181625366e+01 -1.562189346551895142e+01 4.962509503820911050e-01
1.388464921712875366e+01 -1.589765030145645142e+01 4.968155255774036050e-01
1.434338945150375366e+01 -1.617865616083145142e+01 4.968460431555286050e-01
1.128760331869125366e+01 -1.412274795770645142e+01 5.701797833899036050e-01
1.166394609212875366e+01 -1.437958389520645142e+01 5.727127423742786050e-01
1.206690019369125366e+01 -1.465851455926895142e+01 5.755051007727161050e-01
1.249402421712875366e+01 -1.495404678583145142e+01 5.784653058508411050e-01
1.294421952962875366e+01 -1.526569229364395142e+01 5.815780988195911050e-01
1.342297929525375366e+01 -1.559699112176895142e+01 5.849045148352161050e-01
1.388770097494125366e+01 -1.589838272333145142e+01 5.876510968664661050e-01
1.436646074056625366e+01 -1.620258194208145142e+01 5.903519025305286050e-01
1.135999101400375366e+01 -1.421466690301895142e+01 6.496170392492786050e-01
1.172571367025375366e+01 -1.445636612176895142e+01 6.533859601477161050e-01
1.210950273275375366e+01 -1.470953994989395142e+01 6.577804913977161050e-01
1.251453202962875366e+01 -1.497687393426895142e+01 6.624039044836536050e-01
1.293970292806625366e+01 -1.525739151239395142e+01 6.672714581945911050e-01
1.338977617025375366e+01 -1.555438858270645142e+01 6.724136701086536050e-01
1.383289140462875366e+01 -1.583063369989395142e+01 6.770523419836536050e-01
1.428296464681625366e+01 -1.610248428583145142e+01 6.820419660070911050e-01
1.130884355306625366e+01 -1.414508682489395142e+01 7.252395978430286050e-01
1.169580644369125366e+01 -1.441510635614395142e+01 7.321365704992786050e-01
1.211133378744125366e+01 -1.470905166864395142e+01 7.396744122961536050e-01
1.255274003744125366e+01 -1.502142959833145142e+01 7.476700177649036050e-01
1.301904863119125366e+01 -1.535138565301895142e+01 7.561233869055286050e-01
1.351611894369125366e+01 -1.570307022333145142e+01 7.651260724524036050e-01
2.846680253744125366e+01 -3.310822159051895142e+01 1.239918552921153605e+00
2.405811113119125366e+01 -2.745026260614395142e+01 1.084217869327403605e+00
2.291711992025375366e+01 -2.932025772333145142e+01 1.309071384952403605e+00
2.621655839681625366e+01 -3.307550674676895142e+01 1.433308445499278605e+00
2.385486406087875366e+01 -2.954425674676895142e+01 1.315571629093028605e+00
2.736462968587875366e+01 -3.341657119989395142e+01 1.444569431827403605e+00
2.467627519369125366e+01 -2.958441787958145142e+01 1.316822849796153605e+00
2.861108964681625366e+01 -3.382453018426895142e+01 1.458058201358653605e+00
2.926538652181625366e+01 -3.404486709833145142e+01 1.465336643741466105e+00
2.992944902181625366e+01 -3.426166397333145142e+01 1.473591648624278605e+00
2.287256425619125366e+01 -2.925617080926895142e+01 1.471287571475841105e+00
2.306043046712875366e+01 -2.901325088739395142e+01 1.462818943546153605e+00
2.382239335775375366e+01 -2.949738174676895142e+01 1.482853733585216105e+00
2.411719316244125366e+01 -2.937714248895645142e+01 1.479222141788341105e+00
2.473096269369125366e+01 -2.964545303583145142e+01 1.490864597843028605e+00
2.936548417806625366e+01 -3.472345596551895142e+01 1.691655003116466105e+00
2.977771562337875366e+01 -3.464301162958145142e+01 1.689823948428966105e+00
3.060315507650375366e+01 -3.503705459833145142e+01 1.706700169132091105e+00
2.283545488119125366e+01 -2.920197159051895142e+01 1.634083591983653605e+00
2.303943437337875366e+01 -2.898065811395645142e+01 1.626271091983653605e+00
2.810938066244125366e+01 -3.490607315301895142e+01 1.895558201358653605e+00
2.405005449056625366e+01 -2.928803116083145142e+01 1.643589817569591105e+00
2.480225175619125366e+01 -2.972687393426895142e+01 1.665654026553966105e+00
2.435156816244125366e+01 -2.869904190301895142e+01 1.622303806827403605e+00
2.977539628744125366e+01 -3.463361221551895142e+01 1.893971287296153605e+00
3.131982988119125366e+01 -3.586200577020645142e+01 1.952595554874278605e+00
2.444702714681625366e+01 -3.130206924676895142e+01 1.905583225772716105e+00
2.364368242025375366e+01 -2.975104385614395142e+01 1.829289280460216105e+00
2.420862382650375366e+01 -2.997357803583145142e+01 1.843952976749278605e+00
2.428113359212875366e+01 -2.956928116083145142e+01 1.826725803897716105e+00
2.435242265462875366e+01 -2.917218643426895142e+01 1.809819065616466105e+00
2.442163652181625366e+01 -2.877765518426895142e+01 1.792988621280528605e+00
2.978003495931625366e+01 -3.463239151239395142e+01 2.097355686710216105e+00
3.208643144369125366e+01 -3.674457412958145142e+01 2.211537205264903605e+00
8.492315232753753662e+00 -9.400213778018951416e+00 -1.924087175866588950e-01
8.574834764003753662e+00 -9.351263582706451416e+00 -1.950484880944713950e-01
8.653570115566253662e+00 -9.297430574893951416e+00 -1.976729998132213950e-01
8.732671678066253662e+00 -9.243353426456451416e+00 -2.002975115319713950e-01
8.809575974941253662e+00 -9.186956942081451416e+00 -2.027846941491588950e-01
8.880865037441253662e+00 -9.123846590518951416e+00 -2.048293718835338950e-01
8.951787889003753662e+00 -9.060858309268951416e+00 -2.068740496179088950e-01
9.018926560878753662e+00 -8.993719637393951416e+00 -2.089187273522838950e-01
9.281255662441253662e+00 -1.031708389520645142e+01 -1.927901873132213950e-01
9.359502732753753662e+00 -1.024787002801895142e+01 -1.950332293054088950e-01
9.437627732753753662e+00 -1.017865616083145142e+01 -1.972915300866588950e-01
9.520757615566253662e+00 -1.011432510614395142e+01 -1.995345720788463950e-01
9.599004685878753662e+00 -1.004498916864395142e+01 -2.017928728600963950e-01
9.672979295253753662e+00 -9.970526278018951416e+00 -2.040664324304088950e-01
9.751226365566253662e+00 -9.901190340518951416e+00 -2.063094744225963950e-01
9.829595506191253662e+00 -9.831854403018951416e+00 -2.085677752038463950e-01
1.021253007650375366e+01 -1.139923721551895142e+01 -1.905471453210338950e-01
1.029968827962875366e+01 -1.132233291864395142e+01 -1.930495867272838950e-01
1.038684648275375366e+01 -1.124542862176895142e+01 -1.955520281335338950e-01
1.047437089681625366e+01 -1.116815811395645142e+01 -1.980544695397838950e-01
1.056165117025375366e+01 -1.109125381708145142e+01 -2.005569109460338950e-01
1.064917558431625366e+01 -1.101398330926895142e+01 -2.030746111413463950e-01
1.073645585775375366e+01 -1.093695694208145142e+01 -2.055770525475963950e-01
1.082385820150375366e+01 -1.085993057489395142e+01 -2.080947527429088950e-01
1.137500566244125366e+01 -1.275018936395645142e+01 -1.877395281335338950e-01
1.148059648275375366e+01 -1.267182022333145142e+01 -1.905471453210338950e-01
1.157922929525375366e+01 -1.258539444208145142e+01 -1.933700212975963950e-01
1.167810624837875366e+01 -1.249848037958145142e+01 -1.962081560632213950e-01
1.177673906087875366e+01 -1.241193252801895142e+01 -1.990310320397838950e-01
1.187573808431625366e+01 -1.232489639520645142e+01 -2.018691668054088950e-01
1.197437089681625366e+01 -1.223822647333145142e+01 -2.046920427819713950e-01
1.206555742025375366e+01 -1.214386612176895142e+01 -2.075301775475963950e-01
1.290869706869125366e+01 -1.453253799676895142e+01 -1.851455339929088950e-01
1.300269120931625366e+01 -1.441132217645645142e+01 -1.875106462975963950e-01
1.309644120931625366e+01 -1.429047256708145142e+01 -1.898604998132213950e-01
1.319031327962875366e+01 -1.416962295770645142e+01 -1.922103533288463950e-01
1.328357499837875366e+01 -1.404962784051895142e+01 -1.945449480554088950e-01
1.337695878744125366e+01 -1.392938858270645142e+01 -1.968948015710338950e-01
1.346961015462875366e+01 -1.381000381708145142e+01 -1.992141375085338950e-01
1.356213945150375366e+01 -1.369098526239395142e+01 -2.015334734460338950e-01
1.495337480306625366e+01 -1.690851455926895142e+01 -1.812087664147838950e-01
1.518738359212875366e+01 -1.690802627801895142e+01 -1.883651384850963950e-01
1.534778398275375366e+01 -1.682074600458145142e+01 -1.932021746179088950e-01
1.543372148275375366e+01 -1.664911514520645142e+01 -1.951552996179088950e-01
1.551892656087875366e+01 -1.647919327020645142e+01 -1.970931658288463950e-01
1.560388749837875366e+01 -1.630988174676895142e+01 -1.990310320397838950e-01
1.568799394369125366e+01 -1.614227920770645142e+01 -2.009536394616588950e-01
1.575818437337875366e+01 -1.596173721551895142e+01 -2.028609880944713950e-01
2.082495683431625366e+01 -2.373493057489395142e+01 -2.692214617272838950e-01
2.110767167806625366e+01 -2.367670303583145142e+01 -2.775375017663463950e-01
2.139319413900375366e+01 -2.361798721551895142e+01 -2.859298357507213950e-01
2.171863359212875366e+01 -2.359821182489395142e+01 -2.955886492272838950e-01
1.912524980306625366e+01 -2.039948135614395142e+01 -2.130843767663463950e-01
1.850586503744125366e+01 -1.941168838739395142e+01 -1.930190691491588950e-01
1.871655839681625366e+01 -1.932599502801895142e+01 -1.991531023522838950e-01
1.831336015462875366e+01 -1.860309463739395142e+01 -1.859542498132213950e-01
2.245740312337875366e+01 -2.562897354364395142e+01 -1.706496843835338950e-01
2.291113847494125366e+01 -2.573480850458145142e+01 -1.825820574304088950e-01
2.332886308431625366e+01 -2.579047256708145142e+01 -1.928054461022838950e-01
2.386707109212875366e+01 -2.596991592645645142e+01 -2.068435320397838950e-01
2.437598222494125366e+01 -2.610675674676895142e+01 -2.201644548913463950e-01
2.483740800619125366e+01 -2.618060928583145142e+01 -2.323409685632213950e-01
2.519946855306625366e+01 -2.614264541864395142e+01 -2.429153093835338950e-01
1.831519120931625366e+01 -1.860162979364395142e+01 -7.232204766478389502e-02
2.344959062337875366e+01 -2.677777725458145142e+01 -3.705898614134639502e-02
2.392163652181625366e+01 -2.688532119989395142e+01 -4.763332696165889502e-02
2.439514726400375366e+01 -2.698456436395645142e+01 -5.828396172728389502e-02
2.494446367025375366e+01 -2.715631729364395142e+01 -7.033840508665889502e-02
2.523889726400375366e+01 -2.704035049676895142e+01 -7.787624688353389502e-02
2.535779374837875366e+01 -2.673236709833145142e+01 -8.225551934447139502e-02
2.567908281087875366e+01 -2.664227920770645142e+01 -9.029690118040889502e-02
1.831714433431625366e+01 -1.860016494989395142e+01 4.190524725709110498e-02
2.424780839681625366e+01 -2.770050674676895142e+01 1.116989484289661050e-01
2.418848222494125366e+01 -2.718524795770645142e+01 1.085251203039661050e-01
2.453711503744125366e+01 -2.713910537958145142e+01 1.009872785070911050e-01
2.526550859212875366e+01 -2.750617080926895142e+01 8.919223456177860498e-02
